# .PCD v0.7 - Point Cloud Data file format
VERSION 0.7
FIELDS x y z normal_x normal_y normal_z curvature
SIZE 4 4 4 4 4 4 4
TYPE F F F F F F F
COUNT 1 1 1 1 1 1 1
WIDTH 943
HEIGHT 1
VIEWPOINT 0 0 0 1 0 0 0
POINTS 943
DATA ascii
-0.097499579 -0.064325057 -0.0027794412 0 -1 4.0084124e-05 0
-0.092538506 -0.06432505 -0.002469857 0 -1 4.0084124e-05 0
-0.087670982 -0.064325035 -0.002302767 0 -1 4.0084124e-05 0
-0.082267284 -0.064325035 -0.0023903323 0 -1 4.0084124e-05 0
-0.07742089 -0.064325057 -0.0027212773 0 -1 4.0084124e-05 0
-0.07224378 -0.064325057 -0.0026590466 0 -1 4.0084124e-05 0
-0.06746196 -0.064325035 -0.0024696712 0 -1 4.0084124e-05 0
-0.062471166 -0.064325035 -0.0021711739 0 -1 4.0084124e-05 0
-0.05739636 -0.064325064 -0.0027704875 0 -1 4.0084124e-05 0
-0.052456655 -0.064325042 -0.0026907295 0 -1 4.0084124e-05 0
-0.047326669 -0.06432505 -0.0024269666 0 -1 4.0084124e-05 0
-0.042613391 -0.06432505 -0.0025423032 0 -1 4.0084124e-05 0
-0.037501719 -0.06432502 -0.0020366956 0 -1 4.0084124e-05 0
-0.032145575 -0.06432505 -0.0028015282 0 -1 4.0084124e-05 0
-0.027435536 -0.064325027 -0.0023346259 0 -1 4.0084124e-05 0
-0.022480095 -0.064325035 -0.0022202097 0 -1 4.0084124e-05 0
-0.018207451 -0.064325057 -0.0026955043 0 -1 4.0084124e-05 0
-0.012573873 -0.064325035 -0.002212811 0 -1 4.0084124e-05 0
-0.0074595097 -0.064325057 -0.0026749573 0 -1 4.0084124e-05 0
-0.0019623805 -0.064325027 -0.0022143682 0 -1 4.0084124e-05 0
0.0024480827 -0.064325035 -0.0026017961 0 -1 4.0084124e-05 0
0.0073078433 -0.06432505 -0.0025509691 0 -1 4.0084124e-05 0
0.012075765 -0.064325042 -0.0025988163 0 -1 4.0084124e-05 0
0.017686659 -0.064325042 -0.0023540179 0 -1 4.0084124e-05 0
0.022591043 -0.06432502 -0.0023864519 0 -1 4.0084124e-05 0
0.027061244 -0.064325057 -0.0028154228 0 -1 4.0084124e-05 0
0.032718722 -0.064325035 -0.0024212424 0 -1 4.0084124e-05 0
0.037730414 -0.064325035 -0.0023810309 0 -1 4.0084124e-05 0
0.042528037 -0.06432505 -0.0027813129 0 -1 4.0084124e-05 0
0.047720984 -0.064325064 -0.0026390229 0 -1 4.0084124e-05 0
0.05271643 -0.06432505 -0.002505155 0 -1 4.0084124e-05 0
0.057531446 -0.064325057 -0.0027476009 0 -1 4.0084124e-05 0
0.06279467 -0.064325057 -0.0027326073 0 -1 4.0084124e-05 0
0.067634888 -0.064325035 -0.0026169308 0 -1 4.0084124e-05 0
0.072190382 -0.064325057 -0.0027727678 0 -1 4.0084124e-05 0
0.077504948 -0.064325057 -0.0025283787 0 -1 4.0084124e-05 0
0.082667157 -0.064325057 -0.002644879 0 -1 4.0084124e-05 0
0.087810554 -0.064325057 -0.002827106 0 -1 4.0084124e-05 0
0.092359006 -0.06432505 -0.0028380428 0 -1 4.0084124e-05 0
0.097452909 -0.06432505 -0.0025991735 0 -1 4.0084124e-05 0
0.10256714 -0.06432505 -0.0024584457 0 -1 4.0084124e-05 0
0.1071971 -0.06432505 -0.0025675034 0 -1 4.0084124e-05 0
0.11245749 -0.064325035 -0.0024354414 0 -1 4.0084124e-05 0
0.11771018 -0.06432502 -0.0019604855 0 -1 4.0084124e-05 0
0.12239718 -0.06432505 -0.0026042049 0 -1 4.0084124e-05 0
0.1278384 -0.064325057 -0.0026457768 0 -1 4.0084124e-05 0
0.1326059 -0.064325042 -0.0024055215 0 -1 4.0084124e-05 0
0.13726339 -0.064325027 -0.0022332345 0 -1 4.0084124e-05 0
0.14254363 -0.064325057 -0.0024929976 0 -1 4.0084124e-05 0
0.14730194 -0.062825561 -0.0027387645 0.90906483 -0.41665474 1.6701239e-05 0
-0.102156 -0.057262421 -0.0022774003 -1 0 0 0
0.14784394 -0.057762291 -0.0022141181 1 0 0 0
-0.10215599 -0.052281473 -0.0028746487 -1 0 0 0
0.14784396 -0.052470181 -0.00267827 1 0 0 0
-0.10215598 -0.047277123 -0.0026434883 -1 0 0 0
0.14784394 -0.047995906 -0.0025430932 1 0 0 0
-0.10215598 -0.042324919 -0.0029124669 -1 0 0 0
0.14784396 -0.042688906 -0.0029451954 1 0 0 0
-0.10215599 -0.037281308 -0.0025475256 -1 0 0 0
0.14784396 -0.037416097 -0.0022615632 1 0 0 0
-0.10215601 -0.032434538 -0.0027090942 -1 0 0 0
0.14784394 -0.032548003 -0.0027588785 1 0 0 0
-0.10215599 -0.027469246 -0.0022340997 -1 0 0 0
0.14784397 -0.027735841 -0.0023450069 1 0 0 0
-0.10215601 -0.022497421 -0.0026219676 -1 0 0 0
0.14784399 -0.022621984 -0.0022923776 1 0 0 0
-0.10215602 -0.017459484 -0.0024576003 -1 0 0 0
0.14784394 -0.017396174 -0.0023922245 1 0 0 0
-0.10145439 -0.014406194 -0.0025639359 -0.38805699 0.92163539 0 0
-0.097322173 -0.014326004 -0.002196176 0 1 0 0
-0.092537694 -0.014326001 -0.0030724206 0 1 0 0
-0.087212197 -0.014325995 -0.0025066093 0 1 0 0
-0.082579002 -0.014326004 -0.0024156508 0 1 0 0
-0.077590764 -0.014325999 -0.0026602517 0 1 0 0
-0.072563492 -0.014325999 -0.0028338409 0 1 0 0
-0.067324258 -0.014325996 -0.0024096987 0 1 0 0
-0.062565207 -0.014325993 -0.002645697 0 1 0 0
-0.057152368 -0.014325997 -0.0022192318 0 1 0 0
-0.052681133 -0.014325995 -0.0024792841 0 1 0 0
-0.0477584 -0.014325997 -0.0023284939 0 1 0 0
-0.042535983 -0.014325993 -0.0025746038 0 1 0 0
-0.037356522 -0.014326002 -0.0024749311 0 1 0 0
-0.032630667 -0.014326004 -0.002523965 0 1 0 0
-0.027672127 -0.014325999 -0.0024518447 0 1 0 0
-0.022625364 -0.014325995 -0.0026470523 0 1 0 0
-0.017065115 -0.014326003 -0.0020234089 0 1 0 0
-0.01241397 -0.014325999 -0.0024218832 0 1 0 0
-0.0077073802 -0.014325997 -0.002518466 0 1 0 0
-0.0025675017 -0.014325997 -0.0025051918 0 1 0 0
0.0023970963 -0.014325996 -0.0026366471 0 1 0 0
0.0076522711 -0.014326 -0.0023087324 0 1 0 0
0.012383244 -0.014325997 -0.0024005666 0 1 0 0
0.017646976 -0.014325998 -0.0027099042 0 1 0 0
0.022237051 -0.014326004 -0.0020939808 0 1 0 0
0.027500292 -0.014325996 -0.0020723043 0 1 0 0
0.033207975 -0.014326003 -0.0022907471 0 1 0 0
0.037391763 -0.014325997 -0.0026444804 0 1 0 0
0.042933851 -0.014325994 -0.0022787282 0 1 0 0
0.047977164 -0.014325994 -0.002727547 0 1 0 0
0.052337985 -0.014325994 -0.0021428338 0 1 0 0
0.057365078 -0.014325992 -0.0026628985 0 1 0 0
0.06275636 -0.014326 -0.0021859892 0 1 0 0
0.067445591 -0.014325998 -0.0021086663 0 1 0 0
0.072398126 -0.014325997 -0.0024177243 0 1 0 0
0.077583358 -0.014325996 -0.0026387344 0 1 0 0
0.082444474 -0.014326001 -0.0029492038 0 1 0 0
0.08738295 -0.014325991 -0.0026701964 0 1 0 0
0.092546061 -0.014325999 -0.00274308 0 1 0 0
0.097756043 -0.014325994 -0.0028837675 0 1 0 0
0.1027176 -0.014325999 -0.0023650948 0 1 0 0
0.10747389 -0.014325996 -0.0025238164 0 1 0 0
0.11259288 -0.014326002 -0.002504549 0 1 0 0
0.1177378 -0.014325997 -0.0021648942 0 1 0 0
0.12250115 -0.014326002 -0.0025708023 0 1 0 0
0.12780075 -0.014325996 -0.002544946 0 1 0 0
0.13249065 -0.014325997 -0.0025457086 0 1 0 0
0.13764143 -0.014326 -0.0025091874 0 1 0 0
0.14277832 -0.014326001 -0.0024671082 0 1 0 0
0.14690582 -0.014457405 -0.0024466461 0.46031716 0.88775456 0 0
-0.10181358 -0.063058242 0.00243629 -0.86136591 -0.50798506 2.0362135e-05 0
-0.097765058 -0.064324848 0.0022389526 0 -1 4.0084124e-05 0
-0.092752419 -0.064324856 0.0022844521 0 -1 4.0084124e-05 0
-0.087087125 -0.064324848 0.002532284 0 -1 4.0084124e-05 0
-0.082250848 -0.064324841 0.0025399493 0 -1 4.0084124e-05 0
-0.077813156 -0.064324848 0.0020730516 0 -1 4.0084124e-05 0
-0.072736867 -0.064324848 0.0024648027 0 -1 4.0084124e-05 0
-0.067590892 -0.064324848 0.0024507039 0 -1 4.0084124e-05 0
-0.062493253 -0.064324833 0.0028313014 0 -1 4.0084124e-05 0
-0.057114132 -0.064324841 0.0026018512 0 -1 4.0084124e-05 0
-0.052693471 -0.064324848 0.0023656692 0 -1 4.0084124e-05 0
-0.047356181 -0.064324856 0.0024544692 0 -1 4.0084124e-05 0
-0.042370856 -0.064324841 0.0023839471 0 -1 4.0084124e-05 0
-0.037595581 -0.064324856 0.0023001635 0 -1 4.0084124e-05 0
-0.032024968 -0.064324841 0.0024380833 0 -1 4.0084124e-05 0
-0.027390242 -0.064324848 0.0023595782 0 -1 4.0084124e-05 0
-0.022511881 -0.064324848 0.0023820868 0 -1 4.0084124e-05 0
-0.017400132 -0.064324863 0.002429731 0 -1 4.0084124e-05 0
-0.012875253 -0.064324848 0.0025508825 0 -1 4.0084124e-05 0
-0.0077424417 -0.064324856 0.0024923915 0 -1 4.0084124e-05 0
-0.0023310571 -0.064324841 0.0024986295 0 -1 4.0084124e-05 0
0.002998061 -0.064324833 0.0027937107 0 -1 4.0084124e-05 0
0.0075157168 -0.064324848 0.0027719734 0 -1 4.0084124e-05 0
0.012469231 -0.064324841 0.0025514057 0 -1 4.0084124e-05 0
0.017387165 -0.064324841 0.0026154392 0 -1 4.0084124e-05 0
0.022765841 -0.064324841 0.0024984232 0 -1 4.0084124e-05 0
0.027572839 -0.064324856 0.0022723537 0 -1 4.0084124e-05 0
0.03271956 -0.064324826 0.0029205373 0 -1 4.0084124e-05 0
0.037677247 -0.064324841 0.0025022021 0 -1 4.0084124e-05 0
0.042401176 -0.064324826 0.0028279361 0 -1 4.0084124e-05 0
0.047554947 -0.064324856 0.0022119572 0 -1 4.0084124e-05 0
0.052637413 -0.064324848 0.0021583168 0 -1 4.0084124e-05 0
0.0573477 -0.064324848 0.0026104138 0 -1 4.0084124e-05 0
0.062682964 -0.064324841 0.0027706525 0 -1 4.0084124e-05 0
0.067812108 -0.064324833 0.0027228205 0 -1 4.0084124e-05 0
0.072612979 -0.064324833 0.0026746118 0 -1 4.0084124e-05 0
0.078103118 -0.064324856 0.0021891801 0 -1 4.0084124e-05 0
0.082568385 -0.064324841 0.0023105831 0 -1 4.0084124e-05 0
0.087657258 -0.064324848 0.002283077 0 -1 4.0084124e-05 0
0.092781007 -0.064324841 0.0026906505 0 -1 4.0084124e-05 0
0.097439818 -0.064324833 0.0026350461 0 -1 4.0084124e-05 0
0.10271591 -0.064324833 0.0029387195 0 -1 4.0084124e-05 0
0.10765418 -0.064324848 0.0022717889 0 -1 4.0084124e-05 0
0.11244334 -0.064324848 0.0024484654 0 -1 4.0084124e-05 0
0.11718971 -0.064324833 0.0028230064 0 -1 4.0084124e-05 0
0.1222875 -0.064324848 0.0021983455 0 -1 4.0084124e-05 0
0.12714608 -0.064324841 0.0027066411 0 -1 4.0084124e-05 0
0.13234331 -0.064324848 0.0023831155 0 -1 4.0084124e-05 0
0.13741271 -0.064324848 0.0023672986 0 -1 4.0084124e-05 0
0.14252128 -0.064324841 0.0025217284 0 -1 4.0084124e-05 0
0.14729266 -0.062972605 0.0028523321 0.83205032 -0.5547002 2.2234672e-05 0
-0.10215599 -0.057306089 0.0026720788 -1 0 0 0
0.14784396 -0.057869483 0.0029365344 1 0 0 0
-0.10215598 -0.052301161 0.0024497209 -1 0 0 0
0.14784396 -0.052662864 0.0025235051 1 0 0 0
-0.102156 -0.047331225 0.0021980463 -1 0 0 0
0.14784394 -0.04740027 0.002218589 1 0 0 0
-0.10215601 -0.042687684 0.0021274299 -1 0 0 0
0.14784399 -0.042312019 0.0022482746 1 0 0 0
-0.10215598 -0.037867118 0.0020994979 -1 0 0 0
0.14784396 -0.037567876 0.0026316927 1 0 0 0
-0.10215598 -0.032614961 0.0022008168 -1 0 0 0
0.14784394 -0.032489751 0.0023214868 1 0 0 0
-0.102156 -0.027460298 0.0025879524 -1 0 0 0
0.14784396 -0.027411588 0.0023674974 1 0 0 0
-0.10215598 -0.02294828 0.0022690417 -1 0 0 0
0.14784399 -0.022491666 0.0029118692 1 0 0 0
-0.10215601 -0.017389586 0.0026631784 -1 0 0 0
0.14784396 -0.017396899 0.0027029826 1 0 0 0
-0.10136614 -0.0144271 0.0025173414 -0.31622776 0.94868332 0 0
-0.097623251 -0.014326001 0.0027629493 0 1 0 0
-0.0923829 -0.014325999 0.0025629092 0 1 0 0
-0.087780163 -0.014325995 0.0027997412 0 1 0 0
-0.082732469 -0.014325994 0.0025228318 0 1 0 0
-0.077799313 -0.014325997 0.002832083 0 1 0 0
-0.072342567 -0.014325996 0.0024474927 0 1 0 0
-0.067297287 -0.014325996 0.0025682875 0 1 0 0
-0.062289368 -0.014325996 0.0024569314 0 1 0 0
-0.057685222 -0.014325998 0.0027151385 0 1 0 0
-0.052557509 -0.014325998 0.0024241034 0 1 0 0
-0.047621865 -0.014325994 0.0024770563 0 1 0 0
-0.042577293 -0.014325999 0.0024056823 0 1 0 0
-0.037366573 -0.014325995 0.0024161569 0 1 0 0
-0.032756582 -0.014325997 0.0026557739 0 1 0 0
-0.028083999 -0.014325993 0.0025109695 0 1 0 0
-0.022366853 -0.014325997 0.0021304036 0 1 0 0
-0.017487388 -0.014325996 0.0023186277 0 1 0 0
-0.012311203 -0.014325997 0.0025329373 0 1 0 0
-0.0075363046 -0.014325996 0.0022324678 0 1 0 0
-0.002549106 -0.014325996 0.0020769301 0 1 0 0
0.0028397599 -0.014325998 0.0028849202 0 1 0 0
0.0074651204 -0.014326 0.002715237 0 1 0 0
0.012687167 -0.014326002 0.0025207803 0 1 0 0
0.017831728 -0.014326002 0.0026144858 0 1 0 0
0.022470258 -0.014326001 0.002558582 0 1 0 0
0.027214067 -0.014326002 0.0026120481 0 1 0 0
0.032519858 -0.014325999 0.0026125999 0 1 0 0
0.037304521 -0.014326 0.0031989082 0 1 0 0
0.042605288 -0.014325994 0.0024467893 0 1 0 0
0.047337953 -0.014325999 0.0022944373 0 1 0 0
0.052144747 -0.014326002 0.0025339555 0 1 0 0
0.057103336 -0.014325993 0.0023105969 0 1 0 0
0.062661141 -0.014325997 0.0025784199 0 1 0 0
0.067393534 -0.014325998 0.0025861159 0 1 0 0
0.07248994 -0.014325994 0.0028089471 0 1 0 0
0.077601418 -0.014325997 0.0025171035 0 1 0 0
0.082458593 -0.014325999 0.0018564234 0 1 0 0
0.087346092 -0.014325999 0.0023266887 0 1 0 0
0.092434883 -0.014325997 0.0022297986 0 1 0 0
0.097226091 -0.014325998 0.0026530267 0 1 0 0
0.10249881 -0.014325998 0.0022710171 0 1 0 0
0.10749337 -0.014325995 0.0024011964 0 1 0 0
0.1121804 -0.014325995 0.0024918704 0 1 0 0
0.11773243 -0.014325997 0.002366062 0 1 0 0
0.12238495 -0.014325993 0.0021194217 0 1 0 0
0.1279874 -0.014325998 0.0029130224 0 1 0 0
0.13195628 -0.014325998 0.0025864742 0 1 0 0
0.13774183 -0.014325994 0.0031122877 0 1 0 0
0.14235444 -0.014326 0.0025259522 0 1 0 0
0.1465937 -0.014396118 0.0026182593 0.19002192 0.98177987 0 0
-0.10178927 -0.06281995 0.0073988601 -0.89442724 -0.44721362 1.7926166e-05 0
-0.097311869 -0.06432464 0.0072974768 0 -1 4.0084124e-05 0
-0.092683122 -0.06432464 0.0075333067 0 -1 4.0084124e-05 0
-0.087374449 -0.06432464 0.0072843442 0 -1 4.0084124e-05 0
-0.082174174 -0.064324632 0.0078627346 0 -1 4.0084124e-05 0
-0.077603005 -0.064324655 0.0073711593 0 -1 4.0084124e-05 0
-0.072964117 -0.064324625 0.0078855241 0 -1 4.0084124e-05 0
-0.068252429 -0.064324662 0.007008485 0 -1 4.0084124e-05 0
-0.062372025 -0.064324632 0.0073180362 0 -1 4.0084124e-05 0
-0.057382897 -0.064324625 0.007521065 0 -1 4.0084124e-05 0
-0.052604008 -0.064324632 0.0077357516 0 -1 4.0084124e-05 0
-0.047494393 -0.064324632 0.0076471074 0 -1 4.0084124e-05 0
-0.042249568 -0.064324647 0.0072138957 0 -1 4.0084124e-05 0
-0.037294433 -0.064324647 0.0074365498 0 -1 4.0084124e-05 0
-0.032512773 -0.064324625 0.0077868705 0 -1 4.0084124e-05 0
-0.027274314 -0.064324647 0.007413303 0 -1 4.0084124e-05 0
-0.022618206 -0.064324632 0.0076248823 0 -1 4.0084124e-05 0
-0.017887948 -0.064324632 0.0075412905 0 -1 4.0084124e-05 0
-0.012712308 -0.064324632 0.0077086282 0 -1 4.0084124e-05 0
-0.0076399362 -0.064324662 0.0071320725 0 -1 4.0084124e-05 0
-0.0023280578 -0.064324647 0.0072230999 0 -1 4.0084124e-05 0
0.0023098371 -0.064324647 0.0072704041 0 -1 4.0084124e-05 0
0.0075468076 -0.064324632 0.0075765564 0 -1 4.0084124e-05 0
0.012679923 -0.064324632 0.0076477057 0 -1 4.0084124e-05 0
0.017461138 -0.06432464 0.0072691464 0 -1 4.0084124e-05 0
0.022187883 -0.064324632 0.0075894394 0 -1 4.0084124e-05 0
0.027575864 -0.064324647 0.0073738061 0 -1 4.0084124e-05 0
0.032516193 -0.064324632 0.0075135101 0 -1 4.0084124e-05 0
0.037292745 -0.064324647 0.0073269913 0 -1 4.0084124e-05 0
0.042368088 -0.064324625 0.0078083188 0 -1 4.0084124e-05 0
0.047612686 -0.064324647 0.0074765864 0 -1 4.0084124e-05 0
0.052432124 -0.06432464 0.0074294787 0 -1 4.0084124e-05 0
0.057453178 -0.064324625 0.007454141 0 -1 4.0084124e-05 0
0.062799059 -0.064324632 0.007271436 0 -1 4.0084124e-05 0
0.066607848 -0.064324632 0.0077112787 0 -1 4.0084124e-05 0
0.072264016 -0.064324632 0.0073266579 0 -1 4.0084124e-05 0
0.076975264 -0.064324655 0.0073122601 0 -1 4.0084124e-05 0
0.082597025 -0.064324632 0.0073435563 0 -1 4.0084124e-05 0
0.087277085 -0.064324625 0.0077097532 0 -1 4.0084124e-05 0
0.092506342 -0.064324647 0.0072807088 0 -1 4.0084124e-05 0
0.097698577 -0.06432464 0.0073578409 0 -1 4.0084124e-05 0
0.10286097 -0.06432464 0.0071502123 0 -1 4.0084124e-05 0
0.10724365 -0.064324625 0.0079591554 0 -1 4.0084124e-05 0
0.11244035 -0.06432464 0.0074058361 0 -1 4.0084124e-05 0
0.11784249 -0.06432464 0.0074653924 0 -1 4.0084124e-05 0
0.12239778 -0.06432464 0.0074769184 0 -1 4.0084124e-05 0
0.12755509 -0.064324632 0.0075344308 0 -1 4.0084124e-05 0
0.13235329 -0.064324632 0.0077331285 0 -1 4.0084124e-05 0
0.13702771 -0.064324632 0.0076563456 0 -1 4.0084124e-05 0
0.14277852 -0.064324632 0.0075452654 0 -1 4.0084124e-05 0
0.14720547 -0.063206583 0.0075122719 0.83541703 -0.54961646 2.2030896e-05 0
-0.10215598 -0.057538524 0.0077186981 -1 0 0 0
0.14784397 -0.057843447 0.0075525125 1 0 0 0
-0.10215604 -0.052764047 0.0073655061 -1 0 0 0
0.14784394 -0.052359492 0.0074816355 1 0 0 0
-0.10215599 -0.047728527 0.0073330845 -1 0 0 0
0.14784399 -0.047783487 0.0080420971 1 0 0 0
-0.10215601 -0.042507589 0.0078733666 -1 0 0 0
0.14784394 -0.042335875 0.007306417 1 0 0 0
-0.10215599 -0.037849724 0.0073303017 -1 0 0 0
0.14784394 -0.037573285 0.0074454569 1 0 0 0
-0.10215598 -0.032615431 0.0072719883 -1 0 0 0
0.14784396 -0.032540627 0.0075682234 1 0 0 0
-0.102156 -0.027565233 0.0075146272 -1 0 0 0
0.14784394 -0.027596416 0.0070495731 1 0 0 0
-0.10215598 -0.022641486 0.0077507552 -1 0 0 0
0.14784399 -0.022399001 0.0072997101 1 0 0 0
-0.10215599 -0.017813068 0.0073627071 -1 0 0 0
0.14784396 -0.017501352 0.0074046417 1 0 0 0
-0.10120928 -0.014367044 0.0080873445 -0.29116163 0.95667392 0 0
-0.097534575 -0.014325995 0.0076145958 0 1 0 0
-0.092445739 -0.014325992 0.0075080614 0 1 0 0
-0.087521397 -0.014325998 0.0074046007 0 1 0 0
-0.082596198 -0.014325995 0.0073443609 0 1 0 0
-0.077530444 -0.014326003 0.0076224548 0 1 0 0
-0.072462067 -0.014325997 0.0074926713 0 1 0 0
-0.067549393 -0.014325998 0.0072809523 0 1 0 0
-0.062319353 -0.014326004 0.0073894155 0 1 0 0
-0.057538915 -0.014325994 0.0076472061 0 1 0 0
-0.052435964 -0.014325991 0.0075958092 0 1 0 0
-0.047423787 -0.014325997 0.0073013082 0 1 0 0
-0.042753961 -0.014326001 0.0073163072 0 1 0 0
-0.037613202 -0.014326001 0.0074061849 0 1 0 0
-0.032334086 -0.014325995 0.0076027694 0 1 0 0
-0.027468693 -0.014325999 0.0073853973 0 1 0 0
-0.022477383 -0.014325996 0.0076011 0 1 0 0
-0.017528815 -0.014326002 0.0076329038 0 1 0 0
-0.013332657 -0.014326004 0.0074670045 0 1 0 0
-0.0079587083 -0.014325999 0.0076533095 0 1 0 0
-0.0021893636 -0.014326002 0.0074335015 0 1 0 0
0.0024253777 -0.014325995 0.0072265426 0 1 0 0
0.007448412 -0.014326002 0.0074506733 0 1 0 0
0.012203225 -0.014325992 0.007519851 0 1 0 0
0.017274804 -0.014326002 0.007576853 0 1 0 0
0.022444708 -0.014325995 0.0077049378 0 1 0 0
0.027922414 -0.014325999 0.0076289084 0 1 0 0
0.032633323 -0.014325996 0.007360111 0 1 0 0
0.037678432 -0.014326002 0.0078115589 0 1 0 0
0.042611789 -0.014325999 0.0074682785 0 1 0 0
0.047836095 -0.014325994 0.0073019858 0 1 0 0
0.052530505 -0.014325995 0.0074973428 0 1 0 0
0.057665426 -0.014325996 0.0072984751 0 1 0 0
0.062514439 -0.014325998 0.0077711199 0 1 0 0
0.067518622 -0.014325996 0.0071144914 0 1 0 0
0.07308498 -0.014326 0.007715553 0 1 0 0
0.077912286 -0.014326004 0.0070218891 0 1 0 0
0.08291667 -0.014325993 0.0074167303 0 1 0 0
0.087596111 -0.014325995 0.0075520365 0 1 0 0
0.09222991 -0.014325996 0.0072246958 0 1 0 0
0.097455882 -0.014325999 0.0073859687 0 1 0 0
0.1022696 -0.014326004 0.0073349006 0 1 0 0
0.10712023 -0.014325999 0.0072803847 0 1 0 0
0.11252829 -0.014326002 0.007857684 0 1 0 0
0.11734443 -0.014325998 0.0077489261 0 1 0 0
0.12264708 -0.014325994 0.0074620037 0 1 0 0
0.12783965 -0.014325996 0.0076141655 0 1 0 0
0.13203169 -0.014325999 0.0074173864 0 1 0 0
0.13731371 -0.014325994 0.0075764055 0 1 0 0
0.14246613 -0.014326004 0.0076504727 0 1 0 0
0.1467683 -0.014369564 0.0073297014 0.21242964 0.97717637 0 0
-0.10177483 -0.062808387 0.012388024 -0.8797065 -0.47551703 1.9060682e-05 0
-0.097444169 -0.064324439 0.012504063 0 -1 4.0084124e-05 0
-0.09251076 -0.064324453 0.012391993 0 -1 4.0084124e-05 0
-0.087302744 -0.064324446 0.012490062 0 -1 4.0084124e-05 0
-0.082653336 -0.064324439 0.012185854 0 -1 4.0084124e-05 0
-0.077220127 -0.064324453 0.012142561 0 -1 4.0084124e-05 0
-0.072722025 -0.064324461 0.012049427 0 -1 4.0084124e-05 0
-0.066765353 -0.064324453 0.011950912 0 -1 4.0084124e-05 0
-0.062320258 -0.064324431 0.012669237 0 -1 4.0084124e-05 0
-0.057740148 -0.064324431 0.012631075 0 -1 4.0084124e-05 0
-0.052999381 -0.064324446 0.01265953 0 -1 4.0084124e-05 0
-0.047584526 -0.064324453 0.012440708 0 -1 4.0084124e-05 0
-0.042347446 -0.064324424 0.012773586 0 -1 4.0084124e-05 0
-0.037544824 -0.064324461 0.012064462 0 -1 4.0084124e-05 0
-0.03246244 -0.064324453 0.012240957 0 -1 4.0084124e-05 0
-0.027143849 -0.064324431 0.012811055 0 -1 4.0084124e-05 0
-0.022296051 -0.064324439 0.012423548 0 -1 4.0084124e-05 0
-0.017489152 -0.064324446 0.012425828 0 -1 4.0084124e-05 0
-0.012326733 -0.064324431 0.012654371 0 -1 4.0084124e-05 0
-0.0075640865 -0.064324439 0.012457422 0 -1 4.0084124e-05 0
-0.0025099916 -0.064324439 0.012316179 0 -1 4.0084124e-05 0
0.0024280781 -0.064324439 0.012650972 0 -1 4.0084124e-05 0
0.0077155838 -0.064324439 0.012384661 0 -1 4.0084124e-05 0
0.012492471 -0.064324431 0.012559981 0 -1 4.0084124e-05 0
0.017498698 -0.064324461 0.012017533 0 -1 4.0084124e-05 0
0.022647949 -0.064324453 0.012413322 0 -1 4.0084124e-05 0
0.027377399 -0.064324424 0.012887732 0 -1 4.0084124e-05 0
0.032748315 -0.064324431 0.012607231 0 -1 4.0084124e-05 0
0.037933823 -0.064324424 0.012575176 0 -1 4.0084124e-05 0
0.042544253 -0.064324431 0.012696986 0 -1 4.0084124e-05 0
0.047232602 -0.064324431 0.012746664 0 -1 4.0084124e-05 0
0.052652992 -0.064324431 0.012407894 0 -1 4.0084124e-05 0
0.057770424 -0.064324416 0.013020337 0 -1 4.0084124e-05 0
0.062399752 -0.064324439 0.012640932 0 -1 4.0084124e-05 0
0.06759847 -0.064324453 0.012366882 0 -1 4.0084124e-05 0
0.072383963 -0.064324461 0.012198593 0 -1 4.0084124e-05 0
0.077924326 -0.064324446 0.012187755 0 -1 4.0084124e-05 0
0.082599044 -0.064324439 0.01239164 0 -1 4.0084124e-05 0
0.087396689 -0.064324431 0.012640264 0 -1 4.0084124e-05 0
0.092409439 -0.064324446 0.012268557 0 -1 4.0084124e-05 0
0.097712696 -0.064324439 0.012639198 0 -1 4.0084124e-05 0
0.10259058 -0.064324446 0.012422524 0 -1 4.0084124e-05 0
0.10764084 -0.064324431 0.012364238 0 -1 4.0084124e-05 0
0.11258035 -0.064324446 0.012547989 0 -1 4.0084124e-05 0
0.11783516 -0.064324431 0.012609231 0 -1 4.0084124e-05 0
0.1226655 -0.064324431 0.012487733 0 -1 4.0084124e-05 0
0.12785804 -0.064324446 0.012359153 0 -1 4.0084124e-05 0
0.13235535 -0.064324453 0.012418303 0 -1 4.0084124e-05 0
0.13751984 -0.064324439 0.012379934 0 -1 4.0084124e-05 0
0.14217159 -0.064324424 0.012893708 0 -1 4.0084124e-05 0
0.14723848 -0.063212827 0.012629228 0.80274385 -0.59632397 2.3903125e-05 0
-0.10215598 -0.057134252 0.012739643 -1 0 0 0
0.14784396 -0.057374407 0.012337864 1 0 0 0
-0.10215603 -0.052019626 0.012616205 -1 0 0 0
0.14784397 -0.052196871 0.012587355 1 0 0 0
-0.10215599 -0.047437079 0.012352577 -1 0 0 0
0.14784394 -0.047428973 0.012551561 1 0 0 0
-0.10215603 -0.042484757 0.012661757 -1 0 0 0
0.14784393 -0.04261981 0.012389596 1 0 0 0
-0.10215601 -0.03772324 0.012770799 -1 0 0 0
0.14784399 -0.037181534 0.012376411 1 0 0 0
-0.10215599 -0.032612875 0.01249127 -1 0 0 0
0.14784399 -0.032276016 0.011913215 1 0 0 0
-0.10215599 -0.027472677 0.012776936 -1 0 0 0
0.14784399 -0.027227353 0.012720501 1 0 0 0
-0.10215601 -0.022254044 0.012564979 -1 0 0 0
0.14784394 -0.022292402 0.012447725 1 0 0 0
-0.10215601 -0.017601667 0.012301437 -1 0 0 0
0.14784396 -0.017200824 0.012561785 1 0 0 0
-0.10159488 -0.014444877 0.012393499 -0.5407576 0.84117854 0 0
-0.097533293 -0.014325996 0.012434853 0 1 0 0
-0.092435047 -0.014326002 0.01241909 0 1 0 0
-0.087493159 -0.014326002 0.013027428 0 1 0 0
-0.082545623 -0.014325994 0.012741781 0 1 0 0
-0.077539556 -0.014325998 0.012505232 0 1 0 0
-0.072584912 -0.014326003 0.01231933 0 1 0 0
-0.067693464 -0.014325998 0.012557639 0 1 0 0
-0.06271594 -0.014325993 0.012584753 0 1 0 0
-0.057644304 -0.014325996 0.012448857 0 1 0 0
-0.052272443 -0.014326002 0.012591115 0 1 0 0
-0.047410358 -0.014326001 0.012128651 0 1 0 0
-0.042328872 -0.014325997 0.012497679 0 1 0 0
-0.037470475 -0.014325997 0.012619297 0 1 0 0
-0.03243934 -0.014325995 0.012633716 0 1 0 0
-0.027468996 -0.014325995 0.012696448 0 1 0 0
-0.022511832 -0.014325997 0.012165448 0 1 0 0
-0.017448986 -0.014325998 0.012632335 0 1 0 0
-0.012647414 -0.014325996 0.012326065 0 1 0 0
-0.007496262 -0.014325997 0.012649106 0 1 0 0
-0.0024323943 -0.014325999 0.012579513 0 1 0 0
0.0026930168 -0.014326001 0.012449415 0 1 0 0
0.0073207053 -0.014325998 0.012431186 0 1 0 0
0.012340897 -0.014325999 0.012269446 0 1 0 0
0.017554414 -0.014325999 0.012708497 0 1 0 0
0.022615381 -0.014325998 0.012478483 0 1 0 0
0.027726458 -0.014325996 0.01240139 0 1 0 0
0.032681249 -0.014326002 0.012981859 0 1 0 0
0.037680715 -0.014325996 0.012575469 0 1 0 0
0.042357124 -0.014326002 0.012709542 0 1 0 0
0.047386494 -0.014325995 0.012447918 0 1 0 0
0.052727025 -0.014325994 0.012555291 0 1 0 0
0.057710465 -0.014325993 0.012574926 0 1 0 0
0.062034369 -0.014326001 0.012675 0 1 0 0
0.067863464 -0.014325998 0.012669704 0 1 0 0
0.072259247 -0.014325997 0.012249989 0 1 0 0
0.077710301 -0.014326001 0.012607634 0 1 0 0
0.08240597 -0.014325999 0.012828395 0 1 0 0
0.087499432 -0.014325999 0.01270973 0 1 0 0
0.092538014 -0.014325994 0.012516531 0 1 0 0
0.097900905 -0.014326002 0.012693861 0 1 0 0
0.10276099 -0.014325995 0.012282431 0 1 0 0
0.10754437 -0.014325996 0.012427566 0 1 0 0
0.11300861 -0.014326004 0.012953004 0 1 0 0
0.11752281 -0.014325996 0.012599718 0 1 0 0
0.12246649 -0.014325996 0.012732535 0 1 0 0
0.12735221 -0.014325994 0.012699221 0 1 0 0
0.13265529 -0.014325993 0.012728831 0 1 0 0
0.13749297 -0.014325998 0.012548739 0 1 0 0
0.14246482 -0.014325995 0.012598779 0 1 0 0
0.14670007 -0.014366564 0.012440065 0.12033137 0.99273384 0 0
-0.10170294 -0.063040771 0.017704694 -0.83205026 -0.5547002 2.2234672e-05 0
-0.097361505 -0.064324252 0.01752164 0 -1 4.0084124e-05 0
-0.092709087 -0.064324237 0.017580774 0 -1 4.0084124e-05 0
-0.087486736 -0.064324237 0.017585663 0 -1 4.0084124e-05 0
-0.082190774 -0.064324223 0.017701734 0 -1 4.0084124e-05 0
-0.078006439 -0.06432423 0.017693842 0 -1 4.0084124e-05 0
-0.072515912 -0.064324215 0.017809518 0 -1 4.0084124e-05 0
-0.067098364 -0.064324237 0.017229319 0 -1 4.0084124e-05 0
-0.062829576 -0.06432423 0.01762432 0 -1 4.0084124e-05 0
-0.057848271 -0.064324245 0.017645368 0 -1 4.0084124e-05 0
-0.052326016 -0.06432423 0.017521171 0 -1 4.0084124e-05 0
-0.047553204 -0.064324237 0.017402811 0 -1 4.0084124e-05 0
-0.042095691 -0.064324208 0.017998675 0 -1 4.0084124e-05 0
-0.037525624 -0.06432423 0.017725572 0 -1 4.0084124e-05 0
-0.033048201 -0.064324237 0.017343091 0 -1 4.0084124e-05 0
-0.027331172 -0.06432423 0.017462177 0 -1 4.0084124e-05 0
-0.022512147 -0.064324237 0.017384794 0 -1 4.0084124e-05 0
-0.017313411 -0.064324245 0.017391682 0 -1 4.0084124e-05 0
-0.012410356 -0.064324245 0.017506827 0 -1 4.0084124e-05 0
-0.0072134729 -0.064324215 0.017608108 0 -1 4.0084124e-05 0
-0.0028093357 -0.064324237 0.017560575 0 -1 4.0084124e-05 0
0.0019742053 -0.064324237 0.017406911 0 -1 4.0084124e-05 0
0.0074086278 -0.064324215 0.017918408 0 -1 4.0084124e-05 0
0.01249963 -0.06432423 0.017730568 0 -1 4.0084124e-05 0
0.017261093 -0.064324275 0.016797611 0 -1 4.0084124e-05 0
0.022599299 -0.064324208 0.017990036 0 -1 4.0084124e-05 0
0.027417183 -0.064324245 0.017287882 0 -1 4.0084124e-05 0
0.032217037 -0.06432423 0.017714832 0 -1 4.0084124e-05 0
0.03757982 -0.06432423 0.01751318 0 -1 4.0084124e-05 0
0.042319059 -0.064324215 0.017863566 0 -1 4.0084124e-05 0
0.047696058 -0.064324252 0.017101498 0 -1 4.0084124e-05 0
0.052956302 -0.06432423 0.017551653 0 -1 4.0084124e-05 0
0.057213299 -0.064324245 0.017384497 0 -1 4.0084124e-05 0
0.062208083 -0.064324223 0.017667131 0 -1 4.0084124e-05 0
0.067687243 -0.064324252 0.01709895 0 -1 4.0084124e-05 0
0.072413869 -0.064324252 0.017327629 0 -1 4.0084124e-05 0
0.077608675 -0.064324237 0.017268574 0 -1 4.0084124e-05 0
0.082535759 -0.064324237 0.017612532 0 -1 4.0084124e-05 0
0.087349378 -0.064324252 0.017150316 0 -1 4.0084124e-05 0
0.092670627 -0.064324223 0.017619742 0 -1 4.0084124e-05 0
0.097699128 -0.064324252 0.017294865 0 -1 4.0084124e-05 0
0.10261445 -0.064324237 0.017594893 0 -1 4.0084124e-05 0
0.10702215 -0.064324237 0.017427139 0 -1 4.0084124e-05 0
0.11256688 -0.064324237 0.017738596 0 -1 4.0084124e-05 0
0.1177198 -0.064324252 0.017177941 0 -1 4.0084124e-05 0
0.12268522 -0.064324223 0.017655976 0 -1 4.0084124e-05 0
0.12751327 -0.064324245 0.017392796 0 -1 4.0084124e-05 0
0.13255684 -0.064324215 0.017830124 0 -1 4.0084124e-05 0
0.13706283 -0.06432423 0.017609438 0 -1 4.0084124e-05 0
0.14242086 -0.064324223 0.017671896 0 -1 4.0084124e-05 0
0.14723283 -0.063241534 0.017569382 0.80873609 -0.58817166 2.3576345e-05 0
-0.10215599 -0.057689577 0.017879186 -1 0 0 0
0.14784396 -0.057104178 0.017344901 1 0 0 0
-0.10215602 -0.052739777 0.01760735 -1 0 0 0
0.14784397 -0.052266143 0.017470608 1 0 0 0
-0.10215599 -0.047411263 0.017493239 -1 0 0 0
0.14784394 -0.047890302 0.017376782 1 0 0 0
-0.10215599 -0.042489782 0.017262975 -1 0 0 0
0.14784397 -0.042404942 0.017308515 1 0 0 0
-0.10215604 -0.037563406 0.017526796 -1 0 0 0
0.14784396 -0.037356187 0.017551731 1 0 0 0
-0.10215598 -0.032467574 0.017506219 -1 0 0 0
0.14784394 -0.032815631 0.017293129 1 0 0 0
-0.10215604 -0.027619949 0.017119495 -1 0 0 0
0.14784394 -0.027693791 0.017797651 1 0 0 0
-0.10215601 -0.022024235 0.017473791 -1 0 0 0
0.14784394 -0.022462614 0.017183833 1 0 0 0
-0.10215598 -0.017361438 0.017350648 -1 0 0 0
0.14784402 -0.017614596 0.017314948 1 0 0 0
-0.101477 -0.014388863 0.018008737 -0.18711211 0.98233861 0 0
-0.097428456 -0.014326003 0.017840564 0 1 0 0
-0.092648789 -0.014325995 0.017519955 0 1 0 0
-0.08753942 -0.014325992 0.017653132 0 1 0 0
-0.082439385 -0.014325997 0.017518722 0 1 0 0
-0.077288844 -0.014325997 0.017478058 0 1 0 0
-0.072179414 -0.014326004 0.017586673 0 1 0 0
-0.067791119 -0.014325999 0.017347489 0 1 0 0
-0.062623858 -0.014325994 0.017795678 0 1 0 0
-0.057485353 -0.014325993 0.017457187 0 1 0 0
-0.052683372 -0.014326001 0.01750969 0 1 0 0
-0.047351826 -0.014325999 0.017845677 0 1 0 0
-0.042453978 -0.014325997 0.017561171 0 1 0 0
-0.037423193 -0.014325999 0.01761861 0 1 0 0
-0.032246098 -0.014325997 0.017113471 0 1 0 0
-0.027128445 -0.014325997 0.017390467 0 1 0 0
-0.02261276 -0.014325996 0.017348712 0 1 0 0
-0.017693441 -0.014326001 0.017275397 0 1 0 0
-0.012684396 -0.014325998 0.017687265 0 1 0 0
-0.0072087026 -0.014325996 0.017478772 0 1 0 0
-0.002658128 -0.014326002 0.017534932 0 1 0 0
0.0026121733 -0.014325999 0.017667107 0 1 0 0
0.0076724752 -0.014325996 0.017627215 0 1 0 0
0.012619266 -0.014325993 0.017182438 0 1 0 0
0.017560203 -0.014326 0.017510168 0 1 0 0
0.022571703 -0.014326001 0.017594608 0 1 0 0
0.027417328 -0.014325997 0.017571706 0 1 0 0
0.032572586 -0.014325994 0.017753813 0 1 0 0
0.037492331 -0.014325997 0.017393121 0 1 0 0
0.042596757 -0.014325996 0.017123157 0 1 0 0
0.047695339 -0.014326001 0.017639592 0 1 0 0
0.052701302 -0.014325995 0.01727107 0 1 0 0
0.057702944 -0.014325998 0.017596893 0 1 0 0
0.062538132 -0.014325995 0.017329711 0 1 0 0
0.067923211 -0.014326001 0.017438944 0 1 0 0
0.072524495 -0.014325994 0.017621601 0 1 0 0
0.077575073 -0.014325994 0.017598702 0 1 0 0
0.082995214 -0.014325999 0.017308483 0 1 0 0
0.087313607 -0.014325998 0.017260866 0 1 0 0
0.09258832 -0.014325998 0.017447274 0 1 0 0
0.097602189 -0.014325997 0.01752197 0 1 0 0
0.10228764 -0.014326002 0.017467653 0 1 0 0
0.10769106 -0.014325995 0.017624611 0 1 0 0
0.11273187 -0.014325994 0.017709238 0 1 0 0
0.11785667 -0.014325997 0.017138897 0 1 0 0
0.12245619 -0.014326001 0.017496763 0 1 0 0
0.12753689 -0.014326001 0.017772883 0 1 0 0
0.13256741 -0.014326001 0.017465563 0 1 0 0
0.13740332 -0.014325996 0.017319435 0 1 0 0
0.14231238 -0.014325997 0.017154174 0 1 0 0
0.14636166 -0.014363156 0.017570008 0.11354659 0.99353272 0 0
-0.10146409 -0.062907785 0.022330549 -0.76052266 -0.47204855 0.44584253 0
-0.097331084 -0.062903605 0.02264528 0 -0.54074764 0.84118485 0
-0.092800878 -0.063332655 0.022624692 0 -0.6859991 0.72760242 0
-0.087383322 -0.063102379 0.022632666 0 -0.67089981 0.741548 0
-0.082360081 -0.062904753 0.022803254 0 -0.52059805 0.85380191 0
-0.077550903 -0.063071176 0.022775665 0 -0.53904361 0.84227788 0
-0.072377376 -0.062666602 0.023059269 0 -0.36765379 0.92996281 0
-0.06749171 -0.063332058 0.022583872 0 -0.78800905 0.61566365 0
-0.062787145 -0.062930048 0.022769127 0 -0.55946237 0.82885569 0
-0.057405431 -0.06317205 0.022608478 0 -0.68873554 0.72501266 0
-0.052260447 -0.062999912 0.022742018 0 -0.54723912 0.83697629 0
-0.047662444 -0.063150957 0.022765383 0 -0.57919616 0.81518823 0
-0.04227756 -0.06354063 0.022754595 0 -0.76650542 0.64223796 0
-0.037372626 -0.063264638 0.022645153 0 -0.65251011 0.75778002 0
-0.032580215 -0.063066661 0.022748042 0 -0.68535101 0.72821289 0
-0.027261972 -0.063052319 0.022691958 0 -0.60743839 0.79436684 0
-0.022599127 -0.062833704 0.022864798 0 -0.43954572 0.89822024 0
-0.017523583 -0.063190274 0.022688767 0 -0.67265922 0.73995245 0
-0.012517139 -0.063116945 0.022774152 0 -0.67975098 0.73344296 0
-0.0073578218 -0.063316107 0.02247154 0 -0.77873874 0.62734848 0
-0.0026436483 -0.063322805 0.022570239 0 -0.71726501 0.69680047 0
0.0025560339 -0.062868834 0.022995375 0 -0.44720635 0.89443082 0
0.0075781145 -0.063312247 0.022512002 0 -0.75501806 0.65570396 0
0.012354506 -0.063151062 0.022621216 0 -0.68109006 0.73219967 0
0.017511927 -0.06312494 0.022636987 0 -0.65250999 0.75778008 0
0.022524595 -0.062740408 0.023049373 0 -0.38896638 0.92125195 0
0.02751047 -0.063119277 0.022862647 0 -0.45391825 0.89104337 0
0.032873347 -0.062865794 0.022867944 0 -0.51741004 0.85573763 0
0.037578709 -0.063298449 0.022597728 0 -0.75375777 0.65715247 0
0.042459868 -0.063367575 0.022599177 0 -0.74564111 0.6663478 0
0.04752012 -0.063458957 0.022697642 0 -0.75634825 0.65416926 0
0.052620135 -0.062952787 0.022947902 0 -0.52509779 0.85104185 0
0.057667229 -0.06307701 0.022439662 0 -0.70709258 0.70712095 0
0.062664516 -0.063119553 0.022641711 0 -0.62699705 0.77902168 0
0.06723775 -0.062808484 0.022792185 0 -0.58289671 0.81254625 0
0.072736733 -0.063132972 0.022675686 0 -0.6904617 0.72336894 0
0.077503219 -0.063538909 0.022180708 0 -0.85747778 0.514521 0
0.082330041 -0.063135125 0.022755854 0 -0.58816034 0.80874431 0
0.087725595 -0.063425824 0.02271379 0 -0.72952265 0.68395668 0
0.092385285 -0.063226677 0.022593489 0 -0.68392748 0.72955006 0
0.097672269 -0.063190326 0.0226538 0 -0.73277873 0.68046701 0
0.10277256 -0.063020512 0.022824472 0 -0.59266901 0.80544621 0
0.10752166 -0.062986985 0.02291655 0 -0.5791961 0.81518829 0
0.11261386 -0.063313343 0.022914715 0 -0.56395108 0.82580817 0
0.11752127 -0.063136108 0.022374701 0 -0.71698052 0.69709313 0
0.12263118 -0.063249364 0.022685451 0 -0.70709258 0.70712095 0
0.12742785 -0.063188747 0.022767032 0 -0.65712202 0.75378418 0
0.13251555 -0.063144758 0.022773296 0 -0.64696467 0.76252007 0
0.13761508 -0.063327752 0.022801977 0 -0.70709252 0.70712101 0
0.14256726 -0.063208967 0.022648411 0 -0.65849155 0.75258815 0
0.14690879 -0.062764436 0.022182643 0.69048691 -0.51147181 0.51149225 0
-0.10179189 -0.057567939 0.022582589 -0.90424865 0 0.4270063 0
-0.097466812 -0.057583205 0.023505991 0 0 1 0
-0.092685685 -0.057436127 0.023505993 0 0 1 0
-0.087500833 -0.057630494 0.023505991 0 0 1 0
-0.082786158 -0.05761376 0.023505989 0 0 1 0
-0.077788047 -0.057575818 0.023506001 0 0 1 0
-0.072458774 -0.05719988 0.023505995 0 0 1 0
-0.067322023 -0.057474278 0.023506003 0 0 1 0
-0.062604025 -0.057606112 0.023506003 0 0 1 0
-0.057649937 -0.057448924 0.023505993 0 0 1 0
-0.052474797 -0.057536781 0.023505991 0 0 1 0
-0.047463045 -0.057243567 0.023505991 0 0 1 0
-0.042386405 -0.057387382 0.023505995 0 0 1 0
-0.037518088 -0.057593927 0.023505991 0 0 1 0
-0.03235722 -0.056961298 0.023505997 0 0 1 0
-0.027615191 -0.057606846 0.023505993 0 0 1 0
-0.022454675 -0.057405919 0.023505989 0 0 1 0
-0.017707137 -0.057753827 0.023505995 0 0 1 0
-0.012634864 -0.057442438 0.023505989 0 0 1 0
-0.0077435137 -0.057991378 0.023505989 0 0 1 0
-0.0026735622 -0.05740818 0.023505991 0 0 1 0
0.0022878312 -0.057383422 0.023505989 0 0 1 0
0.0077524814 -0.057912607 0.023505989 0 0 1 0
0.012296318 -0.057412352 0.023505995 0 0 1 0
0.017800383 -0.057257593 0.023505999 0 0 1 0
0.022405792 -0.057412524 0.023505989 0 0 1 0
0.027661039 -0.057361796 0.023506006 0 0 1 0
0.032742392 -0.057563294 0.023505995 0 0 1 0
0.037185013 -0.057317011 0.023505989 0 0 1 0
0.042335894 -0.057398271 0.023505989 0 0 1 0
0.047863223 -0.057396509 0.023505991 0 0 1 0
0.052368656 -0.057162087 0.023506006 0 0 1 0
0.057428841 -0.057402249 0.023505997 0 0 1 0
0.063382365 -0.057521217 0.023505989 0 0 1 0
0.067031279 -0.057756349 0.023506001 0 0 1 0
0.072529681 -0.057804886 0.023505991 0 0 1 0
0.077232026 -0.057415251 0.023505991 0 0 1 0
0.082314052 -0.05788504 0.023505991 0 0 1 0
0.087291986 -0.057375673 0.023505995 0 0 1 0
0.092761137 -0.057846166 0.023505993 0 0 1 0
0.097518884 -0.057181489 0.023505991 0 0 1 0
0.10270153 -0.057858884 0.023505991 0 0 1 0
0.10763145 -0.057220355 0.023506003 0 0 1 0
0.11233731 -0.057516459 0.023505995 0 0 1 0
0.11760823 -0.057389755 0.023506004 0 0 1 0
0.12245527 -0.057650939 0.023505989 0 0 1 0
0.12799054 -0.05769062 0.023505991 0 0 1 0
0.13222209 -0.057310045 0.023505993 0 0 1 0
0.13776869 -0.057398546 0.023505999 0 0 1 0
0.1423551 -0.057516024 0.023506006 0 0 1 0
0.14720181 -0.057582822 0.022604104 0.73994005 0 0.67267281 0
-0.10165456 -0.052534133 0.022662906 -0.75740993 0 0.65293962 0
-0.097615778 -0.052741352 0.023506001 0 0 1 0
-0.092512935 -0.052416526 0.023505991 0 0 1 0
-0.087621376 -0.052355036 0.023505991 0 0 1 0
-0.082543217 -0.052410476 0.023505999 0 0 1 0
-0.077741869 -0.052071191 0.023505991 0 0 1 0
-0.072414532 -0.052508391 0.023505997 0 0 1 0
-0.06759569 -0.05227958 0.023505997 0 0 1 0
-0.062771298 -0.052542903 0.023505993 0 0 1 0
-0.057010252 -0.052579489 0.023505993 0 0 1 0
-0.052567724 -0.052292295 0.023505995 0 0 1 0
-0.047471851 -0.052398991 0.023505991 0 0 1 0
-0.042749312 -0.052372131 0.023505991 0 0 1 0
-0.037554931 -0.052185241 0.023505991 0 0 1 0
-0.032679539 -0.052487686 0.023505999 0 0 1 0
-0.027480297 -0.052806709 0.023505991 0 0 1 0
-0.022653826 -0.052365556 0.023505999 0 0 1 0
-0.017643001 -0.052717917 0.023505989 0 0 1 0
-0.012356382 -0.052578684 0.023505993 0 0 1 0
-0.0071727522 -0.052693974 0.023505997 0 0 1 0
-0.0022643409 -0.052727569 0.023505991 0 0 1 0
0.0025562935 -0.052879896 0.023505991 0 0 1 0
0.0075263083 -0.052957237 0.023505989 0 0 1 0
0.012918239 -0.052439824 0.023505991 0 0 1 0
0.017283341 -0.052215625 0.023506001 0 0 1 0
0.022426659 -0.052267913 0.023506001 0 0 1 0
0.027410293 -0.05246168 0.023505993 0 0 1 0
0.032274634 -0.052410789 0.023505989 0 0 1 0
0.037530504 -0.052797139 0.023505995 0 0 1 0
0.042405445 -0.052455783 0.023505995 0 0 1 0
0.047306899 -0.052799229 0.023505997 0 0 1 0
0.052242778 -0.052749783 0.023505993 0 0 1 0
0.057623934 -0.052871082 0.023506001 0 0 1 0
0.06259153 -0.05248607 0.023505999 0 0 1 0
0.067394882 -0.05256832 0.023505989 0 0 1 0
0.072704099 -0.052698381 0.023505991 0 0 1 0
0.077729024 -0.052250326 0.023505989 0 0 1 0
0.082633406 -0.052527316 0.023505989 0 0 1 0
0.08712256 -0.051840495 0.023505989 0 0 1 0
0.09232714 -0.052365251 0.023505995 0 0 1 0
0.097311839 -0.052809518 0.023505995 0 0 1 0
0.10246498 -0.052321505 0.023505995 0 0 1 0
0.10719721 -0.052349154 0.023505991 0 0 1 0
0.1125588 -0.05243222 0.023506001 0 0 1 0
0.11771496 -0.052541226 0.023505995 0 0 1 0
0.12254792 -0.052694004 0.023505993 0 0 1 0
0.12766573 -0.052419718 0.023506001 0 0 1 0
0.13261007 -0.052410901 0.023506003 0 0 1 0
0.13733469 -0.052692272 0.023506004 0 0 1 0
0.14249264 -0.052824799 0.023506001 0 0 1 0
0.1470207 -0.052432578 0.022686044 0.6660158 0 0.74593771 0
-0.10187536 -0.047502127 0.022270763 -0.92058176 0 0.39054984 0
-0.097580232 -0.047498394 0.023505989 0 0 1 0
-0.092131689 -0.047538269 0.023505991 0 0 1 0
-0.08771082 -0.047430582 0.023505999 0 0 1 0
-0.082378685 -0.047472097 0.023505989 0 0 1 0
-0.07754416 -0.047672626 0.023505993 0 0 1 0
-0.07214991 -0.047697023 0.023505997 0 0 1 0
-0.067368671 -0.047487043 0.023505989 0 0 1 0
-0.062784821 -0.047363352 0.023505991 0 0 1 0
-0.057485156 -0.047562256 0.023505989 0 0 1 0
-0.052356735 -0.047175888 0.023505993 0 0 1 0
-0.047317546 -0.047215756 0.023505991 0 0 1 0
-0.042168193 -0.047282822 0.023505989 0 0 1 0
-0.037742604 -0.047916934 0.023505989 0 0 1 0
-0.032465141 -0.047643717 0.023505993 0 0 1 0
-0.02741861 -0.047553841 0.023505991 0 0 1 0
-0.022359982 -0.047283243 0.023505989 0 0 1 0
-0.017603735 -0.047243886 0.023505997 0 0 1 0
-0.012704249 -0.047456797 0.023505989 0 0 1 0
-0.0072668032 -0.047784593 0.023505991 0 0 1 0
-0.0021999686 -0.047538906 0.023505997 0 0 1 0
0.0025623345 -0.047451697 0.023505989 0 0 1 0
0.0075009526 -0.04728492 0.023505993 0 0 1 0
0.012571336 -0.04720743 0.023505991 0 0 1 0
0.017693523 -0.047245942 0.023505989 0 0 1 0
0.022336541 -0.047805604 0.023505989 0 0 1 0
0.027837729 -0.047435395 0.023505999 0 0 1 0
0.032511629 -0.047198255 0.023505993 0 0 1 0
0.037226763 -0.047660004 0.023505997 0 0 1 0
0.042649642 -0.047872517 0.023505991 0 0 1 0
0.04770907 -0.047418498 0.023505999 0 0 1 0
0.052733704 -0.047795832 0.02350601 0 0 1 0
0.057475287 -0.047622923 0.023505999 0 0 1 0
0.062657535 -0.047313999 0.023505991 0 0 1 0
0.067784995 -0.047361773 0.023505993 0 0 1 0
0.072196081 -0.047691867 0.023505997 0 0 1 0
0.077241525 -0.047694888 0.023505989 0 0 1 0
0.082679242 -0.047430851 0.023505991 0 0 1 0
0.087756813 -0.047470197 0.023505991 0 0 1 0
0.092686184 -0.047444642 0.023505989 0 0 1 0
0.097515397 -0.047344573 0.023506001 0 0 1 0
0.102418 -0.047081158 0.023506001 0 0 1 0
0.10758343 -0.047742344 0.023506006 0 0 1 0
0.11248439 -0.047474898 0.023506001 0 0 1 0
0.11730512 -0.047279961 0.023505989 0 0 1 0
0.12266167 -0.047099143 0.023505993 0 0 1 0
0.12733813 -0.047764674 0.023505997 0 0 1 0
0.13243027 -0.047010113 0.023505991 0 0 1 0
0.13779016 -0.047468599 0.023506004 0 0 1 0
0.14220253 -0.047295745 0.023506006 0 0 1 0
0.14736873 -0.04710003 0.02222807 0.91250932 0 0.40905592 0
-0.10173457 -0.042071257 0.022480763 -0.85985476 0 0.51053876 0
-0.097584613 -0.04252018 0.023505997 0 0 1 0
-0.092261508 -0.042672224 0.023505997 0 0 1 0
-0.08743234 -0.042281222 0.023505997 0 0 1 0
-0.082848147 -0.042364322 0.023505997 0 0 1 0
-0.077702805 -0.042564578 0.023505999 0 0 1 0
-0.072800823 -0.04239748 0.023505993 0 0 1 0
-0.067495875 -0.042785842 0.023505993 0 0 1 0
-0.062465198 -0.042367477 0.023505991 0 0 1 0
-0.057381049 -0.042792741 0.023505995 0 0 1 0
-0.052173849 -0.042558152 0.023505991 0 0 1 0
-0.047654442 -0.042411517 0.023506006 0 0 1 0
-0.0424321 -0.042175103 0.023505997 0 0 1 0
-0.037499141 -0.042460348 0.023505995 0 0 1 0
-0.032755237 -0.042787746 0.023505999 0 0 1 0
-0.027951673 -0.042640429 0.023505999 0 0 1 0
-0.022264011 -0.042688679 0.023505995 0 0 1 0
-0.017490948 -0.042260259 0.023505995 0 0 1 0
-0.012603686 -0.042007253 0.023505995 0 0 1 0
-0.0072923475 -0.042616863 0.023505997 0 0 1 0
-0.0026089463 -0.042279601 0.023505989 0 0 1 0
0.0023189087 -0.042630654 0.023505995 0 0 1 0
0.0073999078 -0.042324997 0.023505993 0 0 1 0
0.012556346 -0.04210588 0.023505993 0 0 1 0
0.017345056 -0.042515736 0.023505997 0 0 1 0
0.022532905 -0.042321179 0.023505989 0 0 1 0
0.027638514 -0.04250174 0.023505999 0 0 1 0
0.032908596 -0.042683318 0.023505997 0 0 1 0
0.03749574 -0.042743199 0.023506003 0 0 1 0
0.042328458 -0.042175472 0.023505989 0 0 1 0
0.047231589 -0.042677991 0.023505999 0 0 1 0
0.052890312 -0.043127235 0.023505991 0 0 1 0
0.057405457 -0.042867083 0.023505993 0 0 1 0
0.062619328 -0.042670138 0.023506001 0 0 1 0
0.068010069 -0.042659007 0.023505989 0 0 1 0
0.072750635 -0.042580936 0.023505991 0 0 1 0
0.077261612 -0.042599984 0.023505991 0 0 1 0
0.082815602 -0.04238357 0.023505989 0 0 1 0
0.087651208 -0.042450238 0.023505993 0 0 1 0
0.092478521 -0.042267043 0.023505995 0 0 1 0
0.097408086 -0.042672332 0.023505991 0 0 1 0
0.10243263 -0.042583339 0.023505999 0 0 1 0
0.10742239 -0.042739127 0.023505991 0 0 1 0
0.11244301 -0.042448815 0.023505991 0 0 1 0
0.1175148 -0.042538233 0.023506006 0 0 1 0
0.12286244 -0.042575192 0.023505989 0 0 1 0
0.12726574 -0.042368654 0.023505991 0 0 1 0
0.13243496 -0.042577866 0.023505991 0 0 1 0
0.13749468 -0.042436738 0.023505991 0 0 1 0
0.14244337 -0.042223837 0.023505991 0 0 1 0
0.14733213 -0.04265146 0.022551924 0.78705597 0 0.61688167 0
-0.10180937 -0.037865974 0.022245711 -0.90481871 0 0.42579705 0
-0.097561076 -0.037422966 0.023506003 0 0 1 0
-0.092678815 -0.037294317 0.023505989 0 0 1 0
-0.087270565 -0.03741584 0.023505989 0 0 1 0
-0.082258321 -0.037656024 0.023505993 0 0 1 0
-0.077465914 -0.037385501 0.023505989 0 0 1 0
-0.072449945 -0.038022485 0.023505995 0 0 1 0
-0.067257687 -0.037657913 0.023505995 0 0 1 0
-0.062246151 -0.037427697 0.023505991 0 0 1 0
-0.057746883 -0.037522178 0.023506001 0 0 1 0
-0.052247275 -0.037323367 0.023505989 0 0 1 0
-0.047265641 -0.037228372 0.023505991 0 0 1 0
-0.042724326 -0.037590433 0.023505991 0 0 1 0
-0.037363142 -0.037202056 0.023505991 0 0 1 0
-0.032736253 -0.037961338 0.023505991 0 0 1 0
-0.027962584 -0.037649661 0.023505989 0 0 1 0
-0.022372665 -0.037888862 0.023505999 0 0 1 0
-0.017415151 -0.037877202 0.023505999 0 0 1 0
-0.012280254 -0.037406083 0.023505993 0 0 1 0
-0.0076401271 -0.037511963 0.023505997 0 0 1 0
-0.0022573986 -0.037617281 0.023505993 0 0 1 0
0.0023763294 -0.037788715 0.023506001 0 0 1 0
0.0077595557 -0.037463378 0.023505989 0 0 1 0
0.012346192 -0.037510905 0.023505991 0 0 1 0
0.017279988 -0.037554316 0.023506006 0 0 1 0
0.022511385 -0.037092786 0.023505995 0 0 1 0
0.027851792 -0.037375446 0.023505989 0 0 1 0
0.032596357 -0.037509777 0.023506003 0 0 1 0
0.037472136 -0.037225306 0.023505997 0 0 1 0
0.042682663 -0.037558507 0.023505997 0 0 1 0
0.047417052 -0.037499648 0.023505989 0 0 1 0
0.052510206 -0.037274655 0.023505991 0 0 1 0
0.057709131 -0.03735562 0.023505989 0 0 1 0
0.062453821 -0.036880936 0.023505989 0 0 1 0
0.067543276 -0.037495866 0.023505989 0 0 1 0
0.072128616 -0.037449282 0.023505989 0 0 1 0
0.077362828 -0.037430014 0.023505991 0 0 1 0
0.082444631 -0.037364613 0.023505991 0 0 1 0
0.08742062 -0.037300963 0.023505993 0 0 1 0
0.092605308 -0.037667044 0.023505989 0 0 1 0
0.097318135 -0.03721869 0.023505997 0 0 1 0
0.10261597 -0.037750643 0.023505991 0 0 1 0
0.10781202 -0.037278593 0.023505989 0 0 1 0
0.11248062 -0.037644282 0.023505997 0 0 1 0
0.11767329 -0.037376735 0.023505997 0 0 1 0
0.12225921 -0.037735797 0.023505993 0 0 1 0
0.12709995 -0.037041962 0.023505993 0 0 1 0
0.13288681 -0.037740584 0.023505991 0 0 1 0
0.13731888 -0.037539802 0.023505989 0 0 1 0
0.14244142 -0.037506599 0.023505989 0 0 1 0
0.14709355 -0.037744239 0.022640273 0.70710683 0 0.70710683 0
-0.10178968 -0.032302473 0.022312531 -0.88147998 0 0.4722214 0
-0.097383633 -0.032744695 0.023505993 0 0 1 0
-0.092489079 -0.032695189 0.023505989 0 0 1 0
-0.087728299 -0.032890078 0.023505997 0 0 1 0
-0.082233489 -0.032421194 0.023505999 0 0 1 0
-0.077572472 -0.032406818 0.023505999 0 0 1 0
-0.072343424 -0.032596134 0.023505995 0 0 1 0
-0.066967107 -0.032595281 0.023505993 0 0 1 0
-0.062544435 -0.03241637 0.023505989 0 0 1 0
-0.057480596 -0.032455884 0.023505989 0 0 1 0
-0.052679092 -0.03245033 0.023506003 0 0 1 0
-0.047503121 -0.032429382 0.023505995 0 0 1 0
-0.042974506 -0.032404244 0.023505991 0 0 1 0
-0.037514392 -0.032068614 0.023505999 0 0 1 0
-0.032462314 -0.032504078 0.023505997 0 0 1 0
-0.027469596 -0.032434683 0.023505989 0 0 1 0
-0.022504665 -0.032670248 0.023505991 0 0 1 0
-0.017514404 -0.032182455 0.023505989 0 0 1 0
-0.012597645 -0.032748297 0.023505991 0 0 1 0
-0.0074821673 -0.032479782 0.023505989 0 0 1 0
-0.0028736966 -0.032274351 0.023505997 0 0 1 0
0.0024834194 -0.032493077 0.023505995 0 0 1 0
0.0076045538 -0.032386914 0.023505993 0 0 1 0
0.012774248 -0.032492585 0.023505995 0 0 1 0
0.017381882 -0.032853015 0.023505997 0 0 1 0
0.022076525 -0.032553643 0.023505989 0 0 1 0
0.027874306 -0.032445006 0.023505989 0 0 1 0
0.032406665 -0.032407105 0.023505991 0 0 1 0
0.037485044 -0.032387614 0.023505989 0 0 1 0
0.042331345 -0.032501295 0.023505989 0 0 1 0
0.047255684 -0.032234497 0.023505989 0 0 1 0
0.052747168 -0.032533515 0.023505993 0 0 1 0
0.057698071 -0.032305613 0.023505999 0 0 1 0
0.062579915 -0.032507211 0.023505993 0 0 1 0
0.067789331 -0.032634411 0.023505991 0 0 1 0
0.072805591 -0.032276437 0.023505997 0 0 1 0
0.0774865 -0.032548286 0.023505991 0 0 1 0
0.083065778 -0.032469552 0.023505993 0 0 1 0
